# 3D point list with one line of data per point:
#   POINT3D_ID, X, Y, Z, R, G, B, ERROR, TRACK[] as (IMAGE_ID, POINT2D_IDX)
# Number of points: 180, mean track length: 2.4222222222222221
1 -0.69224095390025586 -4.5783858047373709 9.6765061060307804 17 24 28 0.21131408156264506 2 1054 11 165
2 -0.27183370305773441 -5.7430986170754679 8.8287508504446102 114 121 125 0.55614420659353569 2 2098 11 799 14 400
3 -0.15835465038628549 -5.8264139862063509 8.7335789113889106 136 146 154 0.43845934555212435 2 662 11 800 14 47
4 -0.59456904115515008 -5.4501426956362824 9.1427355266624915 67 82 94 0.25673116469524349 2 2245 11 842 14 434
5 -0.57698487229817474 -5.539997253534759 9.0833526463769658 77 88 95 0.29637658902495806 2 3480 11 1687 14 874
6 -3.3521335196914879 -5.5343516798295145 10.773914974726837 172 116 5 0.32537983912184731 2 4748 11 1725 14 826
7 -0.19836789323854206 -5.044789605419286 9.1786298167514442 56 74 90 0.11032767806905108 2 3654 11 1805 14 954
8 -0.16838861177253586 -5.0399842621069304 9.1654708588046834 59 77 93 0.17160139393400423 2 3655 11 1809 14 964
9 -0.16838861177253586 -5.0399842621069304 9.1654708588046834 59 77 93 0.17160139393400423 2 3656 11 1810 14 965
10 -0.12492956693265206 -5.035279518945277 9.1469051977495965 61 79 98 0.24737187854984743 2 3604 11 1811 14 966
11 -0.28097020069658968 -4.7133578091475767 9.3994804838501338 52 64 76 0.049958964117943816 2 3792 11 1896
12 -0.32120799493944369 -4.5745669866589402 9.4989426936281838 56 65 73 0.11017972505023103 2 3830 11 1915 14 1646
13 -0.58763483174403441 -5.7821114274425431 8.9584764576239486 24 20 15 0.3450182298878044 2 3422 11 2617 14 1395
14 -0.58763483174403441 -5.7821114274425431 8.9584764576239486 24 20 15 0.3450182298878044 2 3421 11 2618 14 1396
15 -0.14827354525987432 -5.6703238859877576 8.8128354194184517 152 158 165 0.19988732629636444 2 3434 11 2646 14 2162
16 -0.26023719605775036 -5.365508915297033 9.0306821435807851 155 161 165 0.11078737221719208 2 3537 11 2689 14 1493
17 -0.19818215802698352 -5.3616428936426948 9.0044502218607203 145 153 159 0.30555622646360225 2 3541 11 2690 14 1494
18 -0.19818215802698352 -5.3616428936426948 9.0044502218607203 145 153 159 0.30555622646360225 2 3542 11 2691 14 1495
19 -0.18740228068204734 -5.3128636975230021 9.0213199248933513 115 127 136 0.2292493728110471 2 4600 11 2693 14 2229
20 -0.36199153636774967 -5.1016831654382901 9.2207953998318857 53 71 87 0.22991486190033483 2 3650 11 2740 14 1540
21 -0.26259449047590971 -5.0908976107581632 9.1831253534877995 53 71 85 0.069324672893673445 2 3596 11 2743 14 1545
22 -0.091008265191556248 -5.073022377236196 9.1077742362231842 68 90 108 0.2452453814688349 2 3603 11 2753
23 0.0089357498967155419 -5.0659489530678545 9.0704401339124807 89 107 124 0.30934273805238194 2 3607 11 2754 14 1568
24 -0.029546215416997881 -5.0256685967092443 9.1080205160687342 70 90 108 0.28820095970422449 2 3610 11 2758 14 1567
25 -0.27418254108001933 -4.9685117320905601 9.2548430634091652 56 74 90 0.24845444702218714 2 3653 11 2774 14 1557
26 -0.33091541227851184 -4.7192059129118231 9.4203652145257646 53 63 74 0.2374630238114471 2 4694 11 2799 14 1609
27 -0.079056042702879303 -4.7371040816244827 9.2923982111665833 66 80 102 0.15570172580799879 2 4668 11 2809 14 1621
28 -0.7085468024923246 -4.6920621439195429 9.5996468007536251 14 21 20 0.51129526267656233 2 5906 11 2834
29 -0.39180373618137854 -4.6336954060690712 9.4994029666469935 54 64 69 0.12947786294859129 2 4718 11 2839 14 1604
30 -0.28903140804129723 -4.6641588945364196 9.4315484389973285 52 65 71 0.1262762710248988 2 4697 11 2843 14 1612
31 -0.28903140804129723 -4.6641588945364196 9.4315484389973285 52 65 71 0.1262762710248988 2 4698 11 2844 14 1613
32 -0.27422048645245273 -4.5695783908921301 9.4789847843778201 57 70 76 0.071917602910719539 2 4722 11 2849 14 1648
33 -0.140466730393282 -4.6954206115807757 9.3436738809290159 61 75 89 0.12050925837561406 2 4702 11 2854 14 1620
34 -0.1179973195209052 -4.6435302532780236 9.3611999023596262 60 69 88 0.40437280637292616 2 4705 11 2855 14 2269
35 -0.35291548422815883 -4.5319364963056925 9.5375009688342089 56 65 71 0.29473938456830817 2 4725 11 2901 14 1642
36 -0.35291548422815883 -4.5319364963056925 9.5375009688342089 56 65 71 0.29473938456830817 2 4724 11 2902 14 1643
37 -0.28186318051472586 -4.2919054292109768 9.6413861289700336 130 130 132 0.24678436751849839 2 4813 11 2958 14 2315
38 -0.28186318051472586 -4.2919054292109768 9.6413861289700336 130 130 132 0.24678436751849839 2 4814 11 2959 14 2314
39 -0.22948679892175336 -4.2851623300714756 9.6199303503151121 106 110 115 0.20735336474860011 2 4815 11 2960 14 2360
40 -0.40722527489413235 -4.1499484930150334 9.7853611905160012 24 47 53 0.25492117794540947 2 4843 11 3003 14 1721
41 -0.12348716030638576 -5.7475100235931835 8.762063829457901 148 154 160 0.58008953573163458 2 4485 11 3569 14 2134
42 -0.10857551002388355 -5.7173889285845556 8.769464274725534 147 153 157 0.10756789936113881 2 4487 11 3570 14 2163
43 -0.56126124677779854 -5.6613937822620803 9.0105561508935779 85 89 92 0.74679577164465449 2 4517 11 3583 14 2848
44 -0.38981324824017 -5.6037011128757319 8.9625723464352465 103 117 127 0.28512877714567497 2 4556 11 3584 14 2158
45 -0.38981324824017 -5.6037011128757319 8.9625723464352465 103 117 127 0.28512877714567497 2 4555 11 3585 14 2159
46 -0.58289185414389255 -5.511805982770392 9.1046082426286628 59 69 79 0.68419251375366097 2 4554 11 3601 14 2183
47 -0.35101896450685172 -5.4685070829049724 9.018227254142591 116 118 119 0.24796198074388606 2 4559 11 3604 14 2186
48 -0.18785861126522285 -5.5036324010601909 8.9203236707529179 46 53 57 0.5450631093096826 2 4562 11 3605 14 2863
49 -0.18785861126522285 -5.5036324010601909 8.9203236707529179 46 53 57 0.5450631093096826 2 4563 11 3606 14 2864
50 -0.06312093598114929 -5.4959033272168885 8.8656819756969742 119 131 143 0.34298796509380486 2 5299 11 3609 14 2865
51 -0.06312093598114929 -5.4959033272168885 8.8656819756969742 119 131 143 0.34298796509380486 2 5300 11 3610 14 2866
52 -0.62305316334051453 -5.4162940577227507 9.1682006829565132 54 73 82 0.50593672034886772 2 4595 11 3621 14 1486
53 -0.31047497862845985 -5.3238873402066114 9.0745795117017138 134 142 150 0.2681979627726101 2 4598 11 3622 14 2209
54 -0.23096053633342942 -5.3846826398345158 9.0107894637952342 151 158 160 0.45459105460508042 2 4599 11 3623 14 2210
55 -0.19950363735693555 -5.4089255883102858 8.9785231860293209 149 155 162 0.11632121180989247 2 4566 11 3624 14 2208
56 -0.42596522591475883 -4.8663446018106935 9.3832371130121448 52 68 84 0.056888023034051348 2 4661 11 3662 14 2251
57 -0.42596522591475883 -4.8663446018106935 9.3832371130121448 52 68 84 0.056888023034051348 2 4662 11 3663 14 2252
58 -0.20227539097037273 -4.8388252282546844 9.2928477466357293 60 78 96 0.19167437347014404 2 4665 11 3682 14 2256
59 -0.20227539097037273 -4.8388252282546844 9.2928477466357293 60 78 96 0.19167437347014404 2 4664 11 3683 14 2255
60 -0.011323553636271751 -4.7290649441930146 9.263365701997234 64 81 103 0.46466876407699842 2 4670 11 3685 14 2272
61 -0.42101022750178535 -4.2857732016450782 9.7105404472163865 22 34 41 0.83748985717931246 2 5435 11 3780 14 2313
62 -0.45146162068219442 -4.2607697905500119 9.7447950345343965 23 46 54 0.015101004280997414 2 5437 11 3782
63 -0.3201515800478727 -4.2677833703340919 9.6734971539879115 124 129 134 0.3744213660083604 2 5439 11 3785 14 2355
64 -0.41625606675138221 -3.9678233630262127 9.9038069563067435 25 65 71 0.41451035449323931 2 5973 11 3846
65 -0.65297196690101167 -3.8664472176229525 10.080436100553083 26 69 84 0.65515055863390503 2 5525 11 3923
66 -0.31303402866298641 -3.9078315129997065 9.8821184122181815 27 63 69 0.27774634368252576 2 5497 11 3926 14 2465
67 -0.030022660872967039 -5.9062442278697977 8.6337242136742649 83 91 96 0.20917893283113709 2 5236 11 4330 14 2798
68 -0.5819944981921461 -5.5960800688103731 9.0529486572430713 73 81 90 0.32800770995307954 2 5298 11 4362 14 2846
69 -0.53399548912239603 -4.3628424502425718 9.7349078768101283 15 38 48 0.43165605348006725 2 6268 11 4476
70 -0.61583473752137075 -5.3503520836335534 9.1941934284385241 56 77 90 0.17459437521847873 2 6200 11 4933 14 3367
71 -3.4416042751480633 -5.447902048929171 10.805608084573532 159 100 7 0.35057087204704213 2 6517 11 4941 14 3341
72 -2.9895280279608754 -5.5959574569807069 10.843405257669428 165 107 4 0.48273944453159345 2 6257 11 4943
73 -0.40457129088873206 -5.4689254625059212 9.0314659111223801 124 126 130 0.62299332712338396 2 6189 11 5329 14 3749
74 -0.2364561555347684 -5.4612854958882524 8.9683027013462571 66 70 71 0.66661496340325843 2 6190 11 5330 14 3750
75 -0.44697178361665413 -5.0560121621399698 9.2496811771827563 53 69 86 0.08068894815230418 2 6483 11 5351
76 -0.63396747320146118 -4.8366075195096947 9.4825667974254433 44 57 61 0.17798413226719581 2 6503 11 5363
77 -0.42464589713848577 -4.5392333286029904 9.5598139875998669 53 61 67 0.50900593593166532 2 6250 11 5380
78 -0.36755370817387217 -5.7112942538514408 8.8991854212933035 66 72 73 0.18815326459765255 2 6459 11 5561
79 -0.32890814892462544 -5.4958240518588477 9.0141564631301598 108 111 110 0.014812929900461293 2 6667 11 5571
80 -0.34944448151653734 -4.7437626928972545 9.4329044659841834 52 64 74 0.22853966917893276 2 6701 11 5589 14 4018
81 -3.192040813765169 -5.3791854781561375 10.946773471452603 159 100 6 0.01201863057864264 2 6901 11 5756
82 -3.4626845842395655 -5.0762243506433826 11.093880475032659 157 98 4 0.29121571555767278 2 6906 11 5761
83 -3.302219267527946 -4.8288823680784096 11.296095414419174 163 106 7 0.33754763338491056 2 6915 11 5772
84 -3.302219267527946 -4.8288823680784096 11.296095414419174 163 106 7 0.33754763338491056 2 6916 11 5773
85 -0.44815154783669936 -5.3735068960235735 9.0663237000266328 121 132 139 0.34203984595035752 2 6881 11 5848 14 4247
86 -3.2619268231921752 -5.6021345136806957 10.781488037276562 139 113 106 0.62423357162930915 2 2476 11 80 14 37
87 -3.2619268231921752 -5.6021345136806957 10.781488037276562 139 113 106 0.62423357162930915 2 2477 11 79 14 38
88 -3.375985127483724 -5.5029883781297029 10.788342225119257 140 115 103 0.28201525563783708 2 4750 11 1723 14 827
89 -0.59415695122343382 -5.2441661075904493 9.2656616981046351 22 18 12 1.2787369579386252 11 1732 14 929
90 -0.20145259581406383 -4.960317838848832 9.2266662656681913 19 19 17 0.059150678234626969 11 1857 14 968
91 2.0032724127360013 -4.4772435933962704 11.416261105106413 45 35 42 0.33644481480091731 11 2139 14 1098
92 -1.4460261217795469 -2.8998919136922092 9.3439454063756227 196 147 74 1.9673216135279183 11 553 14 1183
93 -5.9645284129435368 -5.2899357381083929 10.072187231927559 32 31 15 0.023237676284081632 11 2658 14 1305
94 -1.5306372563624309 -5.3088719219543679 9.658069632446491 131 99 82 0.59720964328575998 2 4635 14 1475
95 -0.63878604651650772 -5.3000168014433617 9.2389879973873921 123 56 38 0.31694306427537722 2 4617 11 2707 14 1487
96 -0.60027633426558502 -5.3114835078697817 9.2030006050234405 123 52 32 0.0076992926105010333 11 2685 14 1488
97 -0.54389182514643664 -5.2861583401769714 9.1977568766599802 36 24 21 0.20720286593581988 11 2710 14 1518
98 -0.15999714877426033 -5.1237200197401798 9.1169756103053103 24 24 16 0.34327826367285147 2 3600 11 2746 14 1544
99 -0.35622651014671641 -4.9760435671708683 9.288830011192081 21 20 15 0.05092972790926277 11 2773 14 1555
100 -0.087745725511477413 -5.0341262174336023 9.1412886931162785 19 20 13 0.092639710912749099 11 2756 14 1564
101 -0.27378253187194385 -4.7615677201262869 9.3699510753396211 34 31 25 0.37254270085576352 2 4695 11 2800 14 1581
102 -0.22121290802074001 -4.7553473710191945 9.3564243628830717 41 34 34 0.091915066202895274 11 2804 14 1582
103 -0.37239055188808851 -4.5808174951666141 9.5142616283701607 33 31 32 0.026686484111232023 11 2848 14 1607
104 -0.33197584518079615 -4.7191747609776629 9.420408968858478 36 30 25 0.0037740690477732763 11 2798 14 1608
105 -0.23726898264073004 -4.7078584715019511 9.3867695625727343 37 34 31 0.028354075670332164 11 2803 14 1611
106 -0.1881093618726585 -4.7030535370907112 9.3667305660026781 36 34 37 0.11707761898580657 11 2805 14 1615
107 -0.14058801638042512 -4.6965633071502229 9.350864105334141 41 37 40 0.12577882899464657 11 2853 14 1619
108 -0.28402845553407013 -4.4729817563319108 9.5331751753590996 37 37 39 0.033239582820797878 11 2903 14 1655
109 -0.22154731745826925 -4.4640297820108792 9.5152595612297404 44 46 49 0.22548126628379106 11 2906 14 1657
110 -0.29069238105941275 -4.4234557372716745 9.5656265115412733 49 52 59 0.18258018297569992 11 2908 14 1683
111 -0.29069238105941275 -4.4234557372716745 9.5656265115412733 49 52 59 0.18258018297569992 11 2907 14 1684
112 -0.29008477157850016 -4.3736192556631135 9.5950790029680242 70 77 99 0.26492308313971047 11 2955 14 1685
113 -2.2086026999584338 -2.9089616478801847 9.3300066222796278 87 79 74 0.085777481435625691 11 2373 14 1887
114 -1.9998212720524027 -2.8384677570344499 9.2413089959613153 60 42 27 0.054613338129527414 11 2376 14 1939
115 -1.5353290906616734 -2.7915326812310184 9.1795743735012731 75 104 116 0.043760449054037434 11 3361 14 1966
116 -1.3402998719610983 -2.7850183094493479 9.1671299585568615 158 169 180 0.063337105289240261 11 2416 14 1968
117 -0.49228006419354797 -1.8733664319027346 8.8020138743795417 108 116 123 0.50346268874774247 11 3421 14 2024
118 -0.57907174618306256 -5.505221041681712 9.0782592068764529 119 66 27 0.43832538845214641 11 3602 14 2182
119 -0.30136685048123169 -5.4634542866778819 8.996070853832272 117 80 56 0.1951456367270672 2 4560 11 3608 14 2188
120 0.0053968536713707299 -5.3477137725040222 8.9282862240867846 42 38 24 0.13003865718108965 11 3627 14 2213
121 -0.31173390240472998 -5.2446755619892187 9.1187119921110877 20 19 15 0.56223939963452274 2 4623 14 2228
122 0.07376898741706911 -5.0191749631853337 9.0853240246195774 23 25 25 0.014398570793057647 11 3648 14 2246
123 -0.38011277145088235 -4.7266090582526781 9.4397387243930133 34 28 25 0.042962568698731163 11 3681 14 2267
124 0.015998343804809495 -4.3471347504013664 9.467349454340253 112 97 90 0.14182140615210659 2 5409 14 2318
125 -0.23034864840538388 -4.284899879560176 9.6179432820971869 34 32 30 0.1680979944616558 11 2961 14 2361
126 -0.50629244153364439 -3.8342493211304722 9.9784499235086983 162 102 12 0.0053141384737308197 11 3925 14 2461
127 -0.429477321146844 -3.927542043482207 9.8946943950952111 100 92 91 0.2431103465252471 11 3847 14 2462
128 -2.0207676595412982 -2.8952930729185562 9.2787192622196635 112 93 79 0.085944207180050414 11 4061 14 2601
129 -1.7970955417852732 -2.7938634526487771 9.1955571710994075 109 121 129 0.00843316893479314 11 3358 14 2622
130 -1.4473236097882929 -2.8767906205377161 9.2295577445317125 177 145 106 0.62114180603034552 11 3363 14 2624
131 -0.89209751809484594 -1.8641787256814573 8.7948566575773661 116 124 135 0.053029413907902549 11 3410 14 2693
132 -0.58135171449107248 -5.5906854940064559 9.0324432709457376 100 48 20 0.14154497925343457 11 4363 14 2847
133 -0.58991570755492739 -4.8790245954740419 9.425847682973064 22 16 11 0.083013028014003856 11 4423 14 2895
134 0.05351749846573161 -4.372065383593668 9.435399956363149 37 27 21 0.32258059792006971 2 5387 14 2961
135 -0.36003603423362185 -3.9474896934808079 9.8788506388377115 84 78 79 1.2637389333063727 2 6294 14 3028
136 -0.26571983464885118 -3.9300985562024326 9.8427037669476789 72 66 57 1.081879433056762 2 6295 14 3029
137 -1.8792800930262894 -3.0182806995254703 9.424113038977227 61 48 38 0.10862830107501034 11 4040 14 3105
138 -1.8616846640282532 -2.8886257338433694 9.2402242370876628 114 82 58 0.42598392215331021 11 4642 14 3131
139 -1.7097838839685036 -2.9009549194693847 9.2582122025172033 151 116 80 0.57784550108558452 11 4068 14 3132
140 -1.6792034898340145 -2.9275491215147778 9.3206665183374806 168 131 86 0.60272984524063133 11 4071 14 3134
141 -0.93060875291291734 -1.3703273941176131 8.2440519943620991 163 144 112 0.0041260567531692313 11 5256 14 3263
142 -0.75279141573159369 -1.4922370546466464 8.3468690297955863 213 220 226 0.16874523121068935 11 5239 14 3264
143 1.8051811238314313 -4.5895312911987851 9.2034117057104652 64 58 64 0.033870763687254266 11 5381 14 3434
144 -0.43664315840936635 -3.8678231338377609 9.9359129336419318 121 92 70 0.037830572099162803 11 5072 14 3466
145 -1.5281059642993113 -2.9108864690323415 9.2802290345973901 212 159 94 0.02897320453719663 11 4644 14 3533
146 2.5946395791340353 -3.7834236688797285 10.912898980835596 50 46 70 0.2418323659570896 11 5117 14 3542
147 -1.7049326100686759 -2.7647635495464753 9.1809567078074146 74 112 130 1.4678284729727205 11 5466 14 3546
148 2.3932375903833116 -3.622493743421658 10.667911960798548 93 94 133 0.26146837006717727 11 5118 14 3553
149 -1.5355395169707884 -2.7083734148992109 9.0969242634406022 177 182 189 0.27275684965071423 11 5131 14 3558
150 -1.3489186000583588 -2.6469454953710789 9.0158543614481079 73 73 73 0.46580252768118535 11 5138 14 3563
151 2.5550203816870973 -3.5442268566735677 10.66439884127348 92 93 129 0.21059285719513424 11 5125 14 3569
152 -2.8747804554146383 -2.0298383384451899 8.4577546307161828 80 56 35 1.0371218360699899 11 5690 14 3590
153 -2.5454660423099904 -1.2183647799388455 8.1449869706026927 59 100 113 0.62221470310425153 11 5252 14 3659
154 -0.47300324854334364 -1.6355205189037958 8.3961889785114057 148 163 183 0.54130233603138267 11 5215 14 3667
155 -1.1765005491985687 -5.7393682802267927 9.2478491690219258 129 75 43 1.2322152629352769 2 6186 14 3725
156 -0.233864486178679 -5.462859534935947 8.9743315196843163 129 108 108 0.070788791258721812 11 5331 14 3751
157 -0.5448606119756485 -5.4085241241899809 9.1319398538865375 186 85 57 0.46025007384789668 2 6464 11 5335 14 3758
158 -0.38775653885528638 -5.3760677808130035 9.0771573027606518 95 89 88 0.48138037877804835 2 6201 11 5336 14 3759
159 -0.25698763976436823 -4.6162286695924646 9.4466231909835585 36 34 36 0.39856432856545604 11 5368 14 3780
160 -0.097697080263527469 -4.4468459581605329 9.4666754881443271 44 39 36 0.56843924021038561 2 6514 14 3797
161 -0.097697080263527469 -4.4468459581605329 9.4666754881443271 44 39 36 0.56843924021038561 2 6515 14 3798
162 2.2657996651428967 -3.6529114087378289 10.75405290116181 87 98 130 0.61281266251427535 11 4634 14 3881
163 -1.4620325710152593 -2.689660087120191 9.0547168063691164 170 173 179 0.81958170403641684 11 5137 14 3885
164 -3.0809484112467445 -1.8660641853964759 8.4632043865944926 124 78 14 0.91170129833592273 11 5496 14 3902
165 -0.41312676417327432 -1.6149776443150523 8.4749528475021538 172 187 205 0.15073570386983165 11 5514 14 3941
166 -0.62691244766885323 -1.5249949526100457 8.3846374156174814 214 225 232 1.5815561069739836 11 5240 14 3944
167 -0.6122990754371811 -1.4717537769203239 8.3637386356166026 217 225 231 0.19160263863499888 11 5522 14 3946
168 -0.33649485623791581 -1.5831142286693465 8.4561880490503523 196 212 230 0.016784911750058633 11 5242 14 3947
169 -0.33649485623791581 -1.5831142286693465 8.4561880490503523 196 212 230 0.016784911750058633 11 5241 14 3948
170 -0.10881393030739889 -5.294217065496297 9.0112875901502179 24 20 17 0.19952616736500933 11 5573 14 4012
171 -0.37795030012426456 -4.9997622399729664 9.2978933192725854 20 18 15 0.17829566965561675 11 5586 14 4014
172 -1.783011530110679 -2.8770324186269036 9.2901108343438317 123 97 77 0.40835845326918729 11 5672 14 4070
173 2.4253988818499042 -3.0222208425623096 10.045117284967848 79 81 104 0.35638546604097232 11 5683 14 4099
174 -0.39477317069286105 -1.5159065838021621 8.3817454359520589 253 255 255 0.94701350768872383 11 5515 14 4119
175 -0.10263018448725583 -5.7007490438634374 8.7783719512200378 177 152 153 0.090586478063673093 11 5744 14 4145
176 -0.045585109998198224 -5.3741032364974961 8.9404134081308158 85 67 53 0.12502097624279926 11 5751 14 4156
177 -0.058391527681395626 -4.6929401903485122 9.3032113521245083 46 42 40 0.9404986892555478 2 6893 14 4257
178 -0.43732133250447897 -1.5099762469015012 8.3276913417886327 249 255 255 0.36919592861757189 11 5909 14 4294
179 2.2687369153356651 -3.5487976740224783 10.635525066307416 101 107 144 1.4878600364556951 11 5891 14 4322
180 2.4396995819429463 -3.3846087599006092 10.454984836687773 27 22 33 1.0239053647524732 11 5961 14 4357
